ply
format ascii 1.0
element vertex 1257
property float x
property float y
property float z
property uchar red
property uchar green
property uchar blue
end_header
3.968750 0.750000 -7.000000 11 20 15 
4.000000 0.750000 -7.000000 12 19 13 
3.404255 0.583587 -5.446808 13 17 16 
3.418182 0.581818 -5.430303 11 18 16 
3.437216 0.580938 -5.422088 12 19 16 
3.482496 0.584475 -5.455099 12 19 13 
3.652174 0.596273 -5.565217 13 17 16 
3.682737 0.597201 -5.573873 11 19 16 
3.738318 0.598131 -5.582554 14 17 17 
3.763240 0.598131 -5.582554 13 17 17 
3.788162 0.598131 -5.582554 12 18 16 
3.819033 0.599064 -5.591264 12 18 15 
3.850000 0.600000 -5.600000 11 19 15 
-0.666667 0.356589 -3.472868 20 26 23 
-0.583333 0.319444 -3.111111 20 26 22 
-0.565517 0.317241 -3.089655 21 26 22 
-0.551724 0.317241 -3.089655 21 26 24 
-0.537931 0.317241 -3.089655 22 27 26 
-0.520548 0.315068 -3.068493 22 26 26 
-0.506849 0.315068 -3.068493 21 26 25 
-0.493151 0.315068 -3.068493 21 26 23 
-0.476190 0.312925 -3.047619 20 27 22 
0.250000 0.718750 -7.000000 20 21 13 
0.281250 0.718750 -7.000000 19 22 15 
0.312500 0.718750 -7.000000 19 23 17 
0.343750 0.718750 -7.000000 17 23 18 
0.375000 0.718750 -7.000000 16 23 19 
0.406250 0.718750 -7.000000 18 22 18 
0.437500 0.718750 -7.000000 17 21 17 
0.468750 0.718750 -7.000000 17 22 18 
0.584615 0.353846 -3.446154 18 20 10 
0.600000 0.353846 -3.446154 19 20 10 
1.507438 0.608264 -5.923967 15 20 16 
1.526316 0.605263 -5.894737 15 19 15 
1.552632 0.605263 -5.894737 15 19 14 
1.578947 0.605263 -5.894737 16 18 13 
1.605263 0.605263 -5.894737 16 18 13 
1.631579 0.605263 -5.894737 15 19 13 
1.657895 0.605263 -5.894737 14 20 11 
1.684211 0.605263 -5.894737 13 20 10 
1.707718 0.604269 -5.885057 14 19 12 
1.731148 0.603279 -5.875410 15 18 14 
1.751634 0.601307 -5.856209 15 19 13 
1.771987 0.599349 -5.837133 16 19 13 
1.792208 0.597403 -5.818182 17 19 12 
1.803543 0.592593 -5.771337 16 18 11 
1.826367 0.591640 -5.762058 16 19 12 
1.849117 0.590690 -5.752809 14 20 13 
1.862839 0.586922 -5.716108 14 20 14 
1.882353 0.585056 -5.697933 15 19 14 
1.901743 0.583201 -5.679873 16 18 14 
1.927100 0.583201 -5.679873 15 19 14 
1.790342 0.433451 -4.221437 16 18 11 
1.809187 0.433451 -4.221437 15 18 12 
1.830189 0.433962 -4.226415 14 18 15 
1.849057 0.433962 -4.226415 14 18 13 
1.867925 0.433962 -4.226415 13 20 11 
1.886792 0.433962 -4.226415 13 20 13 
1.905660 0.433962 -4.226415 14 19 14 
1.924528 0.433962 -4.226415 14 18 13 
3.406250 0.718750 -7.000000 13 19 11 
3.378119 0.706334 -6.879079 12 18 11 
3.402299 0.704981 -6.865901 13 18 13 
3.426386 0.703633 -6.852772 14 18 15 
3.456979 0.703633 -6.852772 15 18 12 
3.487572 0.703633 -6.852772 16 18 10 
3.593750 0.718750 -7.000000 16 18 11 
3.625000 0.718750 -7.000000 16 18 11 
3.656250 0.718750 -7.000000 16 17 12 
3.687500 0.718750 -7.000000 15 18 14 
3.718750 0.718750 -7.000000 12 19 15 
3.750000 0.718750 -7.000000 12 19 16 
3.781250 0.718750 -7.000000 13 19 16 
3.812500 0.718750 -7.000000 12 18 15 
3.843750 0.718750 -7.000000 12 18 15 
3.875000 0.718750 -7.000000 12 18 16 
3.906250 0.718750 -7.000000 12 19 16 
3.937500 0.718750 -7.000000 12 20 16 
3.968750 0.718750 -7.000000 11 20 15 
4.000000 0.718750 -7.000000 12 19 14 
3.407855 0.555891 -5.413898 13 18 15 
3.432024 0.555891 -5.413898 12 19 14 
3.456193 0.555891 -5.413898 12 19 12 
3.571866 0.562691 -5.480122 13 17 16 
3.585366 0.560976 -5.463415 13 17 16 
3.631902 0.564417 -5.496933 12 18 16 
3.763240 0.573209 -5.582554 14 17 15 
3.782271 0.572317 -5.573873 13 17 16 
3.813084 0.573209 -5.582554 11 19 15 
-0.666667 0.341085 -3.472868 20 24 23 
-0.583333 0.305556 -3.111111 20 25 23 
-0.565517 0.303448 -3.089655 19 25 23 
-0.551724 0.303448 -3.089655 19 26 25 
-0.537931 0.303448 -3.089655 19 27 25 
-0.520548 0.301370 -3.068493 20 26 25 
-0.506849 0.301370 -3.068493 20 24 24 
-0.493151 0.301370 -3.068493 20 24 23 
-0.476190 0.299320 -3.047619 19 24 21 
0.218750 0.687500 -7.000000 18 21 13 
0.250000 0.687500 -7.000000 18 21 13 
0.281250 0.687500 -7.000000 17 20 16 
0.312500 0.687500 -7.000000 16 21 18 
0.343750 0.687500 -7.000000 16 22 18 
0.375000 0.687500 -7.000000 17 21 17 
0.406250 0.687500 -7.000000 17 21 16 
0.437500 0.687500 -7.000000 17 20 17 
0.468750 0.687500 -7.000000 17 20 18 
0.584615 0.338462 -3.446154 18 20 12 
0.600000 0.338462 -3.446154 20 20 12 
1.504951 0.580858 -5.914191 14 20 17 
1.526316 0.578947 -5.894737 14 20 14 
1.552632 0.578947 -5.894737 14 20 12 
1.578947 0.578947 -5.894737 14 19 11 
1.605263 0.578947 -5.894737 15 19 12 
1.631579 0.578947 -5.894737 14 19 13 
1.655172 0.577997 -5.885057 13 20 14 
1.681445 0.577997 -5.885057 12 20 14 
1.704918 0.577049 -5.875410 14 19 13 
1.725490 0.575163 -5.856209 16 18 13 
1.748777 0.574225 -5.846656 15 19 14 
1.771987 0.573290 -5.837133 14 19 13 
1.792208 0.571429 -5.818182 16 19 12 
1.803543 0.566828 -5.771337 16 18 10 
1.826367 0.565916 -5.762058 17 18 10 
1.849117 0.565008 -5.752809 15 19 10 
1.871795 0.564103 -5.743590 16 19 11 
1.885350 0.560510 -5.707006 17 19 12 
1.811321 0.415094 -4.226415 14 18 13 
1.830189 0.415094 -4.226415 14 18 15 
1.849057 0.415094 -4.226415 13 19 14 
1.867925 0.415094 -4.226415 12 20 12 
1.886792 0.415094 -4.226415 13 19 13 
1.905660 0.415094 -4.226415 14 18 14 
3.279694 0.674330 -6.865901 12 20 13 
3.375000 0.687500 -7.000000 12 19 11 
3.340996 0.674330 -6.865901 13 18 11 
3.371648 0.674330 -6.865901 13 17 12 
3.402299 0.674330 -6.865901 13 18 15 
3.426386 0.673040 -6.852772 12 19 15 
3.463602 0.674330 -6.865901 13 18 12 
3.494253 0.674330 -6.865901 15 17 12 
3.593750 0.687500 -7.000000 14 18 12 
3.625000 0.687500 -7.000000 13 18 11 
3.656250 0.687500 -7.000000 14 17 11 
3.687500 0.687500 -7.000000 14 18 13 
3.718750 0.687500 -7.000000 12 18 15 
3.750000 0.687500 -7.000000 13 18 15 
3.781250 0.687500 -7.000000 13 18 14 
3.812500 0.687500 -7.000000 13 18 14 
3.843750 0.687500 -7.000000 13 18 14 
3.875000 0.687500 -7.000000 12 18 14 
3.906250 0.687500 -7.000000 12 19 15 
3.937500 0.687500 -7.000000 11 20 14 
3.968750 0.687500 -7.000000 12 19 15 
4.000000 0.687500 -7.000000 13 19 15 
4.031250 0.687500 -7.000000 12 19 14 
3.397590 0.530120 -5.397590 13 18 15 
3.421687 0.530120 -5.397590 11 19 12 
3.445783 0.530120 -5.397590 11 19 11 
3.480363 0.531722 -5.413898 12 19 13 
3.531202 0.535769 -5.455099 11 20 16 
3.560976 0.536585 -5.463415 11 19 16 
3.585366 0.536585 -5.463415 12 18 15 
3.620795 0.538226 -5.480122 12 18 15 
3.782271 0.547434 -5.573873 14 17 15 
-0.666667 0.325581 -3.472868 19 24 23 
-0.583333 0.291667 -3.111111 19 24 22 
-0.565517 0.289655 -3.089655 18 24 22 
-0.551724 0.289655 -3.089655 17 25 21 
-0.537931 0.289655 -3.089655 16 26 21 
-0.520548 0.287671 -3.068493 17 26 21 
-0.506849 0.287671 -3.068493 19 24 22 
-0.493151 0.287671 -3.068493 19 23 22 
-0.476190 0.285714 -3.047619 19 22 21 
0.218750 0.656250 -7.000000 17 19 14 
0.250000 0.656250 -7.000000 16 20 16 
0.281250 0.656250 -7.000000 15 21 18 
0.312500 0.656250 -7.000000 15 21 18 
0.343750 0.656250 -7.000000 16 20 18 
0.375000 0.656250 -7.000000 17 20 15 
0.406250 0.656250 -7.000000 17 20 13 
0.437500 0.656250 -7.000000 18 19 15 
0.468750 0.656250 -7.000000 17 19 16 
0.487619 0.640000 -6.826667 16 20 16 
0.584615 0.323077 -3.446154 18 20 13 
0.600000 0.323077 -3.446154 19 20 12 
1.504951 0.554455 -5.914191 14 20 16 
1.526316 0.552632 -5.894737 14 20 14 
1.552632 0.552632 -5.894737 13 20 13 
1.578947 0.552632 -5.894737 12 20 11 
1.602627 0.551724 -5.885057 13 20 10 
1.626230 0.550820 -5.875410 14 19 13 
1.652459 0.550820 -5.875410 13 20 16 
1.678689 0.550820 -5.875410 11 21 17 
1.699346 0.549020 -5.856209 13 20 15 
1.722675 0.548124 -5.846656 15 19 14 
1.745928 0.547231 -5.837133 15 18 13 
1.771987 0.547231 -5.837133 14 19 13 
1.792208 0.545455 -5.818182 15 18 14 
1.800643 0.540193 -5.762058 16 18 13 
1.826367 0.540193 -5.762058 16 18 9 
1.852090 0.540193 -5.762058 16 18 8 
1.851240 0.396694 -4.231405 13 18 14 
1.867925 0.396226 -4.226415 12 20 14 
1.886792 0.396226 -4.226415 12 18 15 
3.206107 0.641221 -6.839694 15 18 8 
3.236641 0.641221 -6.839694 16 18 10 
3.279694 0.643678 -6.865901 16 18 13 
3.310345 0.643678 -6.865901 14 18 13 
3.340996 0.643678 -6.865901 13 17 13 
3.371648 0.643678 -6.865901 12 18 13 
3.402299 0.643678 -6.865901 11 18 15 
3.432950 0.643678 -6.865901 12 18 15 
3.463602 0.643678 -6.865901 14 17 13 
3.500960 0.644914 -6.879079 14 17 12 
3.593750 0.656250 -7.000000 13 17 13 
3.625000 0.656250 -7.000000 13 17 14 
3.656250 0.656250 -7.000000 13 18 13 
3.687500 0.656250 -7.000000 13 18 13 
3.718750 0.656250 -7.000000 14 17 13 
3.750000 0.656250 -7.000000 12 18 13 
3.781250 0.656250 -7.000000 11 19 12 
3.812500 0.656250 -7.000000 14 17 12 
3.843750 0.656250 -7.000000 16 16 12 
3.875000 0.656250 -7.000000 14 17 14 
3.906250 0.656250 -7.000000 14 18 15 
3.937500 0.656250 -7.000000 14 18 14 
3.968750 0.656250 -7.000000 15 18 14 
4.000000 0.656250 -7.000000 15 17 15 
4.031250 0.656250 -7.000000 13 18 14 
3.382309 0.503748 -5.373313 12 18 17 
3.406297 0.503748 -5.373313 11 19 15 
3.435436 0.504505 -5.381382 11 19 15 
3.475113 0.506787 -5.405732 12 18 16 
3.504532 0.507553 -5.413898 12 18 16 
3.555556 0.511416 -5.455099 11 19 17 
3.579909 0.511416 -5.455099 11 19 16 
3.609756 0.512195 -5.463415 12 18 14 
-0.666667 0.310078 -3.472868 17 22 22 
-0.583333 0.277778 -3.111111 18 22 21 
-0.565517 0.275862 -3.089655 17 22 20 
-0.551724 0.275862 -3.089655 17 24 20 
-0.537931 0.275862 -3.089655 15 24 19 
-0.520548 0.273973 -3.068493 15 23 19 
-0.506849 0.273973 -3.068493 17 22 20 
-0.493151 0.273973 -3.068493 17 21 20 
-0.476190 0.272109 -3.047619 17 21 19 
0.218750 0.625000 -7.000000 16 19 15 
0.250000 0.625000 -7.000000 16 19 15 
0.281250 0.625000 -7.000000 15 21 16 
0.312500 0.625000 -7.000000 15 21 16 
0.343750 0.625000 -7.000000 15 20 17 
0.375000 0.625000 -7.000000 15 19 16 
0.406250 0.625000 -7.000000 15 19 15 
0.437500 0.625000 -7.000000 17 19 16 
0.458015 0.610687 -6.839694 17 19 16 
0.486692 0.608365 -6.813688 15 19 15 
0.516129 0.607211 -6.800759 14 19 16 
0.584054 0.307397 -3.442843 18 19 12 
0.600000 0.307692 -3.446154 18 19 12 
1.500000 0.526316 -5.894737 15 19 14 
1.523810 0.525452 -5.885057 15 19 13 
1.550082 0.525452 -5.885057 14 19 14 
1.576355 0.525452 -5.885057 14 19 12 
1.600000 0.524590 -5.875410 14 19 12 
1.623568 0.523732 -5.865794 15 18 14 
1.647059 0.522876 -5.856209 14 19 16 
1.673203 0.522876 -5.856209 12 19 15 
1.691057 0.520325 -5.827642 12 20 14 
1.717073 0.520325 -5.827642 13 20 12 
1.743089 0.520325 -5.827642 13 20 10 
1.769106 0.520325 -5.827642 13 19 11 
1.774920 0.514469 -5.762058 15 18 13 
1.794872 0.512821 -5.743590 15 18 13 
1.820513 0.512821 -5.743590 14 18 11 
1.846154 0.512821 -5.743590 14 18 10 
3.218750 0.625000 -7.000000 14 17 13 
3.181644 0.611855 -6.852772 13 18 11 
3.206107 0.610687 -6.839694 13 18 10 
3.242830 0.611855 -6.852772 15 17 12 
3.279694 0.613027 -6.865901 16 17 12 
3.310345 0.613027 -6.865901 16 17 12 
3.340996 0.613027 -6.865901 14 18 12 
3.371648 0.613027 -6.865901 13 18 11 
3.402299 0.613027 -6.865901 12 18 12 
3.432950 0.613027 -6.865901 13 18 13 
3.470249 0.614203 -6.879079 13 18 13 
3.562500 0.625000 -7.000000 13 18 12 
3.593750 0.625000 -7.000000 12 18 14 
3.625000 0.625000 -7.000000 13 18 16 
3.656250 0.625000 -7.000000 14 17 14 
3.687500 0.625000 -7.000000 13 18 11 
3.718750 0.625000 -7.000000 14 18 11 
3.750000 0.625000 -7.000000 12 19 12 
3.781250 0.625000 -7.000000 11 19 13 
3.812500 0.625000 -7.000000 13 18 14 
3.843750 0.625000 -7.000000 13 17 15 
3.875000 0.625000 -7.000000 13 18 15 
3.906250 0.625000 -7.000000 13 17 15 
3.937500 0.625000 -7.000000 15 17 13 
3.968750 0.625000 -7.000000 16 17 12 
4.000000 0.625000 -7.000000 13 17 13 
4.031250 0.625000 -7.000000 12 18 14 
4.062500 0.625000 -7.000000 12 17 15 
3.407855 0.483384 -5.413898 11 18 17 
3.426848 0.482655 -5.405732 11 19 16 
3.445783 0.481928 -5.397590 12 18 16 
3.480363 0.483384 -5.413898 13 17 15 
3.504532 0.483384 -5.413898 13 17 15 
3.550152 0.486322 -5.446808 11 19 17 
3.579909 0.487062 -5.455099 12 19 17 
3.609756 0.487805 -5.463415 12 18 15 
3.634146 0.487805 -5.463415 12 18 15 
-0.666667 0.294574 -3.472868 17 20 21 
-0.583333 0.263889 -3.111111 18 20 19 
-0.565517 0.262069 -3.089655 18 20 19 
-0.551724 0.262069 -3.089655 17 21 19 
-0.537931 0.262069 -3.089655 15 21 19 
-0.520548 0.260274 -3.068493 13 22 19 
-0.506849 0.260274 -3.068493 15 22 20 
-0.493151 0.260274 -3.068493 16 21 19 
-0.476190 0.258503 -3.047619 16 21 18 
0.218750 0.593750 -7.000000 15 18 14 
0.250000 0.593750 -7.000000 16 18 14 
0.281250 0.593750 -7.000000 15 20 14 
0.312500 0.593750 -7.000000 14 20 16 
0.343750 0.593750 -7.000000 14 19 16 
0.375000 0.593750 -7.000000 15 19 14 
0.406250 0.593750 -7.000000 15 19 13 
0.437500 0.593750 -7.000000 15 19 14 
0.458015 0.580153 -6.839694 15 18 13 
0.485768 0.576850 -6.800759 14 19 12 
0.515152 0.575758 -6.787879 13 19 13 
0.546490 0.576850 -6.800759 14 19 12 
0.584615 0.292308 -3.446154 17 19 11 
0.600000 0.292308 -3.446154 17 19 11 
1.495082 0.498361 -5.875410 15 19 13 
1.518822 0.497545 -5.865794 16 18 12 
1.539967 0.495922 -5.846656 16 18 11 
1.566069 0.495922 -5.846656 16 18 11 
1.592170 0.495922 -5.846656 15 18 12 
1.613008 0.494309 -5.827642 14 18 15 
1.628433 0.491115 -5.789984 13 18 14 
1.648953 0.489533 -5.771337 13 19 11 
1.672026 0.488746 -5.762058 13 19 12 
1.692308 0.487179 -5.743590 13 20 12 
1.717949 0.487179 -5.743590 13 19 12 
1.743590 0.487179 -5.743590 13 18 13 
1.763578 0.485623 -5.725240 14 18 13 
1.780604 0.483307 -5.697933 14 18 13 
1.803175 0.482540 -5.688889 12 19 12 
1.825674 0.481775 -5.679873 12 19 12 
1.842271 0.479495 -5.652997 12 19 13 
1.861635 0.477987 -5.635220 12 19 14 
3.187500 0.593750 -7.000000 13 18 14 
3.218750 0.593750 -7.000000 14 17 14 
3.187739 0.582375 -6.865901 13 18 14 
3.218391 0.582375 -6.865901 13 18 15 
3.249042 0.582375 -6.865901 13 17 15 
3.285989 0.583493 -6.879079 14 17 12 
3.316699 0.583493 -6.879079 15 18 11 
3.347409 0.583493 -6.879079 12 18 11 
3.378119 0.583493 -6.879079 11 19 10 
3.408829 0.583493 -6.879079 12 19 10 
3.500000 0.593750 -7.000000 13 19 11 
3.531250 0.593750 -7.000000 13 18 12 
3.562500 0.593750 -7.000000 12 18 14 
3.593750 0.593750 -7.000000 11 18 15 
3.625000 0.593750 -7.000000 13 18 15 
3.656250 0.593750 -7.000000 15 17 13 
3.687500 0.593750 -7.000000 14 17 12 
3.718750 0.593750 -7.000000 14 18 14 
3.750000 0.593750 -7.000000 12 19 14 
3.781250 0.593750 -7.000000 10 19 14 
3.812500 0.593750 -7.000000 11 18 14 
3.843750 0.593750 -7.000000 12 18 14 
3.875000 0.593750 -7.000000 12 18 14 
3.906250 0.593750 -7.000000 13 18 15 
3.937500 0.593750 -7.000000 14 17 14 
3.968750 0.593750 -7.000000 13 17 14 
4.000000 0.593750 -7.000000 13 18 15 
4.031250 0.593750 -7.000000 13 18 15 
4.062500 0.593750 -7.000000 13 17 15 
4.093750 0.593750 -7.000000 13 17 16 
3.413011 0.459909 -5.422088 12 17 15 
3.432024 0.459215 -5.413898 13 17 16 
3.456193 0.459215 -5.413898 13 18 16 
3.485628 0.459909 -5.422088 14 17 14 
3.515152 0.460606 -5.430303 13 17 13 
3.555556 0.462709 -5.455099 11 18 15 
3.579909 0.462709 -5.455099 12 18 16 
3.609756 0.463415 -5.463415 13 18 16 
3.634146 0.463415 -5.463415 12 18 16 
3.658537 0.463415 -5.463415 12 17 16 
3.688550 0.464122 -5.471756 12 17 15 
3.712977 0.464122 -5.471756 12 17 18 
-0.666667 0.279070 -3.472868 16 19 18 
-0.583333 0.250000 -3.111111 16 20 19 
-0.565517 0.248276 -3.089655 16 20 20 
-0.551724 0.248276 -3.089655 16 20 20 
-0.537931 0.248276 -3.089655 16 20 18 
-0.520548 0.246575 -3.068493 16 20 19 
-0.506849 0.246575 -3.068493 16 20 20 
-0.493151 0.246575 -3.068493 16 20 20 
-0.476190 0.244898 -3.047619 16 20 20 
0.093750 0.562500 -7.000000 14 19 16 
0.125000 0.562500 -7.000000 13 19 17 
0.250000 0.562500 -7.000000 15 17 14 
0.281250 0.562500 -7.000000 14 18 12 
0.312500 0.562500 -7.000000 12 19 12 
0.343750 0.562500 -7.000000 13 18 14 
0.375000 0.562500 -7.000000 13 17 13 
0.406250 0.562500 -7.000000 13 18 11 
0.437500 0.562500 -7.000000 13 18 14 
0.458015 0.549618 -6.839694 13 18 14 
0.486692 0.547529 -6.813688 13 18 12 
0.516129 0.546490 -6.800759 13 19 13 
0.546490 0.546490 -6.800759 13 18 12 
0.584615 0.276923 -3.446154 17 19 10 
0.600000 0.276923 -3.446154 17 18 9 
1.490196 0.470588 -5.856209 13 19 11 
1.496774 0.464516 -5.780645 14 19 13 
1.522581 0.464516 -5.780645 14 18 13 
1.548387 0.464516 -5.780645 14 19 12 
1.574194 0.464516 -5.780645 14 19 13 
1.594855 0.463023 -5.762058 14 19 14 
1.615385 0.461538 -5.743590 14 19 13 
1.638400 0.460800 -5.734400 14 19 11 
1.664000 0.460800 -5.734400 12 19 9 
1.684211 0.459330 -5.716108 13 19 9 
1.707006 0.458599 -5.707006 13 18 12 
1.732484 0.458599 -5.707006 13 18 15 
1.755167 0.457870 -5.697933 13 19 13 
1.777778 0.457143 -5.688889 12 19 12 
1.800317 0.456418 -5.679873 12 19 13 
1.822785 0.455696 -5.670886 12 18 13 
1.830721 0.451411 -5.617555 13 18 13 
1.850000 0.450000 -5.600000 13 18 15 
1.875000 0.450000 -5.600000 14 18 13 
1.900000 0.450000 -5.600000 15 17 11 
1.921997 0.449298 -5.591264 14 17 11 
3.125000 0.562500 -7.000000 15 17 12 
3.156250 0.562500 -7.000000 12 17 13 
3.187500 0.562500 -7.000000 14 18 11 
3.218750 0.562500 -7.000000 15 18 11 
3.250000 0.562500 -7.000000 14 18 10 
3.281250 0.562500 -7.000000 14 18 12 
3.312500 0.562500 -7.000000 13 18 14 
3.343750 0.562500 -7.000000 13 17 14 
3.375000 0.562500 -7.000000 13 17 12 
3.406250 0.562500 -7.000000 13 18 11 
3.437500 0.562500 -7.000000 12 19 11 
3.468750 0.562500 -7.000000 11 19 10 
3.500000 0.562500 -7.000000 11 20 11 
3.531250 0.562500 -7.000000 12 19 12 
3.562500 0.562500 -7.000000 12 18 14 
3.593750 0.562500 -7.000000 12 17 14 
3.625000 0.562500 -7.000000 13 18 14 
3.656250 0.562500 -7.000000 13 17 13 
3.687500 0.562500 -7.000000 13 16 14 
3.718750 0.562500 -7.000000 14 17 15 
3.750000 0.562500 -7.000000 12 19 15 
3.781250 0.562500 -7.000000 11 19 14 
3.812500 0.562500 -7.000000 11 18 12 
3.843750 0.562500 -7.000000 12 17 12 
3.875000 0.562500 -7.000000 12 17 14 
3.906250 0.562500 -7.000000 12 18 15 
3.937500 0.562500 -7.000000 12 18 15 
3.968750 0.562500 -7.000000 12 18 14 
4.000000 0.562500 -7.000000 12 18 15 
4.031250 0.562500 -7.000000 12 18 15 
4.062500 0.562500 -7.000000 13 17 15 
4.093750 0.562500 -7.000000 13 17 15 
3.413011 0.435703 -5.422088 13 17 13 
3.437216 0.435703 -5.422088 13 17 14 
3.461422 0.435703 -5.422088 13 17 15 
3.490909 0.436364 -5.430303 13 17 15 
3.515152 0.436364 -5.430303 12 18 14 
3.555556 0.438356 -5.455099 12 18 15 
3.579909 0.438356 -5.455099 13 17 15 
3.609756 0.439024 -5.463415 14 18 15 
3.634146 0.439024 -5.463415 13 18 15 
3.658537 0.439024 -5.463415 12 18 16 
3.682927 0.439024 -5.463415 12 17 16 
3.701674 0.438356 -5.455099 12 18 17 
3.737405 0.439695 -5.471756 12 17 17 
-0.666667 0.263566 -3.472868 14 20 17 
-0.583333 0.236111 -3.111111 15 20 17 
-0.565517 0.234483 -3.089655 15 19 19 
-0.551724 0.234483 -3.089655 16 19 19 
-0.537931 0.234483 -3.089655 16 19 18 
-0.520548 0.232877 -3.068493 16 19 19 
-0.506849 0.232877 -3.068493 16 20 20 
-0.493151 0.232877 -3.068493 16 20 19 
-0.476190 0.231293 -3.047619 15 19 19 
0.093750 0.531250 -7.000000 13 18 16 
0.125000 0.531250 -7.000000 13 18 16 
0.250000 0.531250 -7.000000 14 17 11 
0.281250 0.531250 -7.000000 12 18 12 
0.312500 0.531250 -7.000000 11 19 13 
0.343750 0.531250 -7.000000 11 18 14 
0.375000 0.531250 -7.000000 12 17 15 
0.406250 0.531250 -7.000000 12 17 14 
0.437500 0.531250 -7.000000 12 18 15 
0.458015 0.519084 -6.839694 13 17 15 
0.487619 0.518095 -6.826667 13 17 14 
0.517110 0.517110 -6.813688 12 18 14 
0.465267 0.219709 -2.894992 18 19 10 
0.569231 0.261538 -3.446154 18 19 10 
0.584615 0.261538 -3.446154 17 19 11 
1.470968 0.438710 -5.780645 13 19 10 
1.489567 0.436597 -5.752809 14 18 13 
1.512820 0.435897 -5.743590 13 18 13 
1.538462 0.435897 -5.743590 13 18 13 
1.564103 0.435897 -5.743590 13 19 12 
1.589744 0.435897 -5.743590 13 19 13 
1.612800 0.435200 -5.734400 12 19 13 
1.638400 0.435200 -5.734400 13 19 13 
1.661342 0.434505 -5.725240 13 18 12 
1.684211 0.433812 -5.716108 14 18 10 
1.707006 0.433121 -5.707006 15 17 10 
1.732484 0.433121 -5.707006 14 18 12 
1.755167 0.432432 -5.697933 13 19 14 
1.777778 0.431746 -5.688889 12 19 13 
1.800317 0.431062 -5.679873 12 19 12 
1.822785 0.430380 -5.670886 13 18 13 
1.842271 0.429022 -5.652997 13 18 14 
1.855799 0.426332 -5.617555 13 18 14 
1.875000 0.425000 -5.600000 13 19 12 
1.900000 0.425000 -5.600000 13 18 12 
1.921997 0.424337 -5.591264 13 17 12 
3.062500 0.531250 -7.000000 15 17 12 
3.093750 0.531250 -7.000000 15 18 11 
3.125000 0.531250 -7.000000 13 17 12 
3.156250 0.531250 -7.000000 11 18 13 
3.187500 0.531250 -7.000000 12 18 12 
3.218750 0.531250 -7.000000 13 19 12 
3.250000 0.531250 -7.000000 13 18 12 
3.281250 0.531250 -7.000000 13 17 15 
3.312500 0.531250 -7.000000 13 17 16 
3.343750 0.531250 -7.000000 14 17 13 
3.375000 0.531250 -7.000000 14 17 11 
3.406250 0.531250 -7.000000 13 17 10 
3.437500 0.531250 -7.000000 11 18 10 
3.468750 0.531250 -7.000000 11 19 12 
3.500000 0.531250 -7.000000 12 19 15 
3.531250 0.531250 -7.000000 13 18 15 
3.562500 0.531250 -7.000000 13 17 12 
3.593750 0.531250 -7.000000 14 17 10 
3.625000 0.531250 -7.000000 14 18 13 
3.656250 0.531250 -7.000000 13 17 15 
3.687500 0.531250 -7.000000 13 17 16 
3.718750 0.531250 -7.000000 13 17 16 
3.750000 0.531250 -7.000000 12 18 15 
3.781250 0.531250 -7.000000 11 19 13 
3.812500 0.531250 -7.000000 11 19 12 
3.843750 0.531250 -7.000000 12 18 13 
3.875000 0.531250 -7.000000 12 18 14 
3.906250 0.531250 -7.000000 10 19 12 
3.937500 0.531250 -7.000000 10 19 11 
3.968750 0.531250 -7.000000 12 19 12 
4.000000 0.531250 -7.000000 12 18 13 
4.031250 0.531250 -7.000000 12 17 14 
4.062500 0.531250 -7.000000 12 17 15 
3.414634 0.414634 -5.463415 13 17 17 
3.423369 0.412747 -5.438543 14 17 16 
3.447648 0.412747 -5.438543 12 17 15 
3.471927 0.412747 -5.438543 11 18 16 
3.496206 0.412747 -5.438543 11 18 16 
3.520486 0.412747 -5.438543 12 18 15 
3.550152 0.413374 -5.446808 13 17 15 
3.579909 0.414003 -5.455099 14 17 15 
3.604262 0.414003 -5.455099 13 17 15 
3.634146 0.414634 -5.463415 12 18 15 
3.658537 0.414634 -5.463415 12 17 15 
3.677321 0.414003 -5.455099 12 17 16 
3.701674 0.414003 -5.455099 13 17 16 
3.726027 0.414003 -5.455099 12 17 17 
-0.666667 0.248062 -3.472868 14 19 16 
-0.583333 0.222222 -3.111111 15 19 15 
-0.565517 0.220690 -3.089655 15 18 16 
-0.551724 0.220690 -3.089655 15 18 17 
-0.537931 0.220690 -3.089655 15 19 18 
-0.520548 0.219178 -3.068493 15 19 18 
-0.506849 0.219178 -3.068493 14 19 18 
-0.493151 0.219178 -3.068493 14 19 16 
-0.476190 0.217687 -3.047619 14 19 16 
0.062500 0.500000 -7.000000 13 17 15 
0.093750 0.500000 -7.000000 12 18 15 
0.125000 0.500000 -7.000000 12 18 15 
0.281250 0.500000 -7.000000 11 17 12 
0.312500 0.500000 -7.000000 11 17 14 
0.343750 0.500000 -7.000000 12 17 14 
0.375000 0.500000 -7.000000 12 16 14 
0.406250 0.500000 -7.000000 12 17 13 
0.437500 0.500000 -7.000000 11 18 13 
0.458015 0.488550 -6.839694 12 17 12 
0.487619 0.487619 -6.826667 12 16 12 
0.518095 0.487619 -6.826667 12 16 13 
0.450161 0.205788 -2.881029 17 19 10 
0.463395 0.205953 -2.883347 18 19 9 
0.478191 0.206785 -2.894992 18 19 9 
1.468599 0.412238 -5.771337 15 18 11 
1.487180 0.410256 -5.743590 15 18 12 
1.512820 0.410256 -5.743590 13 19 13 
1.538462 0.410256 -5.743590 11 19 14 
1.564103 0.410256 -5.743590 12 20 13 
1.589744 0.410256 -5.743590 12 20 12 
1.615385 0.410256 -5.743590 12 20 13 
1.638400 0.409600 -5.734400 13 19 14 
1.664000 0.409600 -5.734400 14 18 14 
2.936903 0.489484 -6.852772 13 18 14 
2.961832 0.488550 -6.839694 13 17 15 
2.998088 0.489484 -6.852772 14 17 16 
3.028681 0.489484 -6.852772 13 17 14 
3.071017 0.491363 -6.879079 12 18 14 
3.156250 0.500000 -7.000000 12 17 15 
3.187500 0.500000 -7.000000 12 17 14 
3.218750 0.500000 -7.000000 12 18 14 
3.250000 0.500000 -7.000000 11 19 15 
3.281250 0.500000 -7.000000 12 17 17 
3.312500 0.500000 -7.000000 13 17 17 
3.343750 0.500000 -7.000000 14 17 15 
3.375000 0.500000 -7.000000 14 17 12 
3.406250 0.500000 -7.000000 14 17 11 
3.437500 0.500000 -7.000000 13 18 12 
3.468750 0.500000 -7.000000 12 18 14 
3.500000 0.500000 -7.000000 13 17 16 
3.531250 0.500000 -7.000000 14 17 15 
3.562500 0.500000 -7.000000 13 17 12 
3.593750 0.500000 -7.000000 15 17 10 
3.625000 0.500000 -7.000000 16 17 11 
3.656250 0.500000 -7.000000 14 17 13 
3.687500 0.500000 -7.000000 14 17 15 
3.718750 0.500000 -7.000000 14 17 15 
3.750000 0.500000 -7.000000 14 17 15 
3.781250 0.500000 -7.000000 13 18 14 
3.812500 0.500000 -7.000000 11 19 12 
3.843750 0.500000 -7.000000 12 18 14 
3.875000 0.500000 -7.000000 12 18 15 
3.906250 0.500000 -7.000000 11 19 14 
3.937500 0.500000 -7.000000 11 18 12 
3.968750 0.500000 -7.000000 12 18 12 
4.000000 0.500000 -7.000000 14 17 13 
4.031250 0.500000 -7.000000 14 17 14 
4.062500 0.500000 -7.000000 13 17 15 
3.433790 0.389650 -5.455099 14 17 16 
3.458143 0.389650 -5.455099 12 17 16 
3.477204 0.389058 -5.446808 12 18 16 
3.501520 0.389058 -5.446808 12 18 16 
3.525836 0.389058 -5.446808 12 18 16 
3.550152 0.389058 -5.446808 12 18 15 
3.579909 0.389650 -5.455099 14 17 15 
3.604262 0.389650 -5.455099 13 17 15 
3.628615 0.389650 -5.455099 12 17 15 
3.652968 0.389650 -5.455099 13 17 15 
3.677321 0.389650 -5.455099 13 17 15 
3.696049 0.389058 -5.446808 13 17 16 
3.726027 0.389650 -5.455099 12 17 16 
-0.666667 0.232558 -3.472868 13 19 16 
-0.583333 0.208333 -3.111111 13 18 15 
-0.565517 0.206897 -3.089655 14 18 16 
-0.551724 0.206897 -3.089655 14 18 17 
-0.537931 0.206897 -3.089655 14 19 17 
-0.520548 0.205479 -3.068493 14 19 17 
-0.506849 0.205479 -3.068493 13 19 17 
-0.493151 0.205479 -3.068493 14 19 16 
-0.476190 0.204082 -3.047619 14 19 16 
0.062500 0.468750 -7.000000 12 17 13 
0.093750 0.468750 -7.000000 12 17 14 
0.125000 0.468750 -7.000000 12 17 15 
0.281250 0.468750 -7.000000 12 15 11 
0.312500 0.468750 -7.000000 11 16 12 
0.343750 0.468750 -7.000000 11 17 14 
0.375000 0.468750 -7.000000 11 16 14 
0.406250 0.468750 -7.000000 10 16 13 
0.437500 0.468750 -7.000000 10 16 13 
0.458015 0.458015 -6.839694 11 15 10 
0.488550 0.458015 -6.839694 11 14 10 
0.437299 0.192926 -2.881029 15 21 11 
0.450161 0.192926 -2.881029 15 20 13 
0.463395 0.193081 -2.883347 17 19 12 
0.477805 0.193705 -2.892655 17 19 10 
1.244782 0.455408 -6.800759 17 18 10 
1.272727 0.454545 -6.787879 17 18 11 
1.300567 0.453686 -6.775047 15 17 12 
1.489567 0.385233 -5.752809 13 18 14 
1.512820 0.384615 -5.743590 13 19 13 
2.818182 0.454545 -6.787879 13 17 15 
2.848485 0.454545 -6.787879 13 18 13 
2.884250 0.455408 -6.800759 14 17 11 
2.920152 0.456274 -6.813688 14 16 12 
2.950570 0.456274 -6.813688 14 16 13 
2.992366 0.458015 -6.839694 13 18 15 
3.028681 0.458891 -6.852772 13 18 15 
3.065134 0.459770 -6.865901 12 18 16 
3.101727 0.460653 -6.879079 12 18 15 
3.187500 0.468750 -7.000000 13 17 13 
3.218750 0.468750 -7.000000 13 17 12 
3.250000 0.468750 -7.000000 12 18 13 
3.281250 0.468750 -7.000000 12 18 14 
3.312500 0.468750 -7.000000 12 18 14 
3.343750 0.468750 -7.000000 12 18 14 
3.375000 0.468750 -7.000000 13 17 14 
3.406250 0.468750 -7.000000 13 17 14 
3.437500 0.468750 -7.000000 13 17 15 
3.468750 0.468750 -7.000000 13 16 14 
3.500000 0.468750 -7.000000 13 16 14 
3.531250 0.468750 -7.000000 12 17 15 
3.562500 0.468750 -7.000000 11 18 14 
3.593750 0.468750 -7.000000 13 18 13 
3.625000 0.468750 -7.000000 15 17 14 
3.656250 0.468750 -7.000000 14 16 14 
3.687500 0.468750 -7.000000 15 17 13 
3.718750 0.468750 -7.000000 15 16 13 
3.750000 0.468750 -7.000000 14 17 14 
3.781250 0.468750 -7.000000 13 17 16 
3.812500 0.468750 -7.000000 12 18 15 
3.843750 0.468750 -7.000000 13 17 14 
3.875000 0.468750 -7.000000 14 17 15 
3.906250 0.468750 -7.000000 13 17 15 
3.937500 0.468750 -7.000000 12 17 13 
3.968750 0.468750 -7.000000 13 17 13 
4.000000 0.468750 -7.000000 13 17 15 
3.439024 0.365854 -5.463415 13 17 13 
3.458143 0.365297 -5.455099 12 16 14 
3.482496 0.365297 -5.455099 13 16 16 
3.506849 0.365297 -5.455099 13 17 18 
3.525836 0.364742 -5.446808 12 18 17 
3.550152 0.364742 -5.446808 12 18 15 
3.579909 0.365297 -5.455099 13 17 15 
3.604262 0.365297 -5.455099 13 17 15 
3.628615 0.365297 -5.455099 12 17 15 
3.652968 0.365297 -5.455099 12 17 16 
3.671732 0.364742 -5.446808 12 17 16 
3.690440 0.364188 -5.438543 12 17 16 
3.709091 0.363636 -5.430303 12 17 15 
-0.666667 0.217054 -3.472868 11 19 17 
-0.583333 0.194444 -3.111111 11 19 17 
-0.565517 0.193103 -3.089655 12 18 16 
-0.551724 0.193103 -3.089655 12 18 16 
-0.537931 0.193103 -3.089655 12 19 16 
-0.520548 0.191781 -3.068493 13 19 16 
-0.506849 0.191781 -3.068493 13 18 15 
-0.493151 0.191781 -3.068493 13 18 15 
-0.479452 0.191781 -3.068493 13 18 15 
-0.462585 0.190476 -3.047619 14 18 16 
0.031250 0.437500 -7.000000 12 17 14 
0.062500 0.437500 -7.000000 12 17 14 
0.093750 0.437500 -7.000000 12 16 14 
0.125000 0.437500 -7.000000 12 16 15 
0.281250 0.437500 -7.000000 12 16 13 
0.312500 0.437500 -7.000000 10 16 13 
0.343750 0.437500 -7.000000 10 16 14 
0.375000 0.437500 -7.000000 10 15 13 
0.406250 0.437500 -7.000000 10 14 12 
0.437500 0.437500 -7.000000 10 15 12 
0.458015 0.427481 -6.839694 9 15 10 
0.488550 0.427481 -6.839694 9 15 10 
0.436597 0.179775 -2.876405 15 20 13 
0.449799 0.179920 -2.878715 13 20 14 
0.463023 0.180064 -2.881029 14 19 13 
0.477419 0.180645 -2.890323 15 19 11 
1.214421 0.425047 -6.800759 16 18 12 
1.242424 0.424242 -6.787879 16 18 9 
1.270321 0.423440 -6.775047 16 18 8 
1.300567 0.423440 -6.775047 16 18 10 
1.333333 0.424242 -6.787879 14 17 9 
2.747170 0.422642 -6.762264 11 18 14 
2.777359 0.422642 -6.762264 12 17 14 
2.807547 0.422642 -6.762264 12 18 14 
2.848485 0.424242 -6.787879 12 17 14 
2.878788 0.424242 -6.787879 13 16 14 
2.909091 0.424242 -6.787879 14 16 12 
2.944972 0.425047 -6.800759 13 17 13 
2.980989 0.425856 -6.813688 13 18 13 
3.017143 0.426667 -6.826667 12 18 13 
3.059273 0.428298 -6.852772 12 18 13 
3.095785 0.429119 -6.865901 11 19 14 
3.132438 0.429942 -6.879079 12 19 13 
3.218750 0.437500 -7.000000 13 18 12 
3.250000 0.437500 -7.000000 12 18 13 
3.281250 0.437500 -7.000000 11 18 15 
3.312500 0.437500 -7.000000 12 17 14 
3.343750 0.437500 -7.000000 12 17 13 
3.375000 0.437500 -7.000000 13 17 13 
3.406250 0.437500 -7.000000 14 17 12 
3.437500 0.437500 -7.000000 13 18 14 
3.468750 0.437500 -7.000000 13 17 14 
3.500000 0.437500 -7.000000 13 16 13 
3.531250 0.437500 -7.000000 13 16 13 
3.562500 0.437500 -7.000000 12 17 14 
3.593750 0.437500 -7.000000 12 18 14 
3.625000 0.437500 -7.000000 13 17 15 
3.656250 0.437500 -7.000000 13 17 15 
3.687500 0.437500 -7.000000 14 16 14 
3.718750 0.437500 -7.000000 14 17 14 
3.750000 0.437500 -7.000000 13 17 16 
3.781250 0.437500 -7.000000 12 18 18 
3.812500 0.437500 -7.000000 13 17 17 
3.843750 0.437500 -7.000000 14 17 12 
3.875000 0.437500 -7.000000 14 17 11 
3.439024 0.341463 -5.463415 12 17 15 
3.463415 0.341463 -5.463415 12 16 14 
3.482496 0.340944 -5.455099 12 16 15 
3.506849 0.340944 -5.455099 12 17 16 
3.531202 0.340944 -5.455099 12 18 16 
3.555556 0.340944 -5.455099 12 18 15 
3.579909 0.340944 -5.455099 13 17 15 
3.598784 0.340426 -5.446808 12 17 15 
3.623100 0.340426 -5.446808 12 17 16 
3.647416 0.340426 -5.446808 12 17 17 
3.666161 0.339909 -5.438543 12 18 16 
3.679274 0.338880 -5.422088 12 18 16 
3.697885 0.338369 -5.413898 12 17 14 
-0.666667 0.201550 -3.472868 12 17 17 
-0.583333 0.180556 -3.111111 12 17 17 
-0.565517 0.179310 -3.089655 12 17 16 
-0.551724 0.179310 -3.089655 13 17 16 
-0.537931 0.179310 -3.089655 13 17 16 
-0.520548 0.178082 -3.068493 13 18 15 
-0.506849 0.178082 -3.068493 12 17 15 
-0.493151 0.178082 -3.068493 13 17 15 
-0.479452 0.178082 -3.068493 14 17 14 
0.000000 0.406250 -7.000000 10 17 11 
0.031250 0.406250 -7.000000 11 18 12 
0.062500 0.406250 -7.000000 11 18 14 
0.093750 0.406250 -7.000000 11 16 14 
0.125000 0.406250 -7.000000 10 16 14 
0.281250 0.406250 -7.000000 10 16 13 
0.312500 0.406250 -7.000000 10 16 13 
0.343750 0.406250 -7.000000 10 16 13 
0.375000 0.406250 -7.000000 10 15 12 
0.406250 0.406250 -7.000000 9 14 11 
0.437500 0.406250 -7.000000 10 15 10 
0.459770 0.398467 -6.865901 9 15 10 
0.490421 0.398467 -6.865901 10 15 10 
0.423756 0.166934 -2.876405 17 20 12 
0.436597 0.166934 -2.876405 14 20 13 
0.449438 0.166934 -2.876405 13 20 13 
0.462651 0.167068 -2.878715 14 19 11 
0.476651 0.167472 -2.885668 15 19 10 
1.214421 0.394687 -6.800759 14 18 11 
1.242424 0.393939 -6.787879 14 18 9 
1.270321 0.393195 -6.775047 15 18 7 
1.300567 0.393195 -6.775047 15 18 8 
1.333333 0.393939 -6.787879 13 17 7 
1.363636 0.393939 -6.787879 8 12 6 
2.475472 0.392453 -6.762264 13 17 14 
2.500942 0.391714 -6.749529 13 17 14 
2.671670 0.390244 -6.724203 13 18 9 
2.706767 0.390977 -6.736842 12 18 10 
2.741996 0.391714 -6.749529 13 17 12 
2.777359 0.392453 -6.762264 13 17 13 
2.807547 0.392453 -6.762264 12 18 13 
2.843100 0.393195 -6.775047 12 17 15 
2.873346 0.393195 -6.775047 13 17 15 
2.909091 0.393939 -6.787879 13 17 14 
2.939394 0.393939 -6.787879 12 18 13 
2.969697 0.393939 -6.787879 11 19 13 
3.005692 0.394687 -6.800759 12 18 12 
3.047619 0.396190 -6.826667 12 18 11 
3.089866 0.397706 -6.852772 11 19 12 
3.126437 0.398467 -6.865901 12 18 12 
3.218750 0.406250 -7.000000 13 17 12 
3.250000 0.406250 -7.000000 13 17 13 
3.281250 0.406250 -7.000000 12 17 14 
3.312500 0.406250 -7.000000 12 17 13 
3.343750 0.406250 -7.000000 12 18 13 
3.375000 0.406250 -7.000000 13 17 11 
3.406250 0.406250 -7.000000 14 17 10 
3.437500 0.406250 -7.000000 13 18 12 
3.468750 0.406250 -7.000000 12 17 13 
3.500000 0.406250 -7.000000 13 16 12 
3.531250 0.406250 -7.000000 14 16 11 
3.562500 0.406250 -7.000000 14 16 13 
3.593750 0.406250 -7.000000 13 17 15 
3.625000 0.406250 -7.000000 13 17 15 
3.656250 0.406250 -7.000000 12 17 15 
3.687500 0.406250 -7.000000 12 17 15 
3.718750 0.406250 -7.000000 11 17 15 
3.750000 0.406250 -7.000000 11 18 16 
3.781250 0.406250 -7.000000 12 17 16 
3.414634 0.317073 -5.463415 12 16 16 
3.439024 0.317073 -5.463415 13 17 17 
3.463415 0.317073 -5.463415 14 16 15 
3.482496 0.316591 -5.455099 12 17 15 
3.506849 0.316591 -5.455099 11 18 14 
3.525836 0.316109 -5.446808 12 18 14 
3.550152 0.316109 -5.446808 12 18 14 
3.574468 0.316109 -5.446808 12 17 15 
3.598784 0.316109 -5.446808 12 17 16 
3.623100 0.316109 -5.446808 13 17 16 
3.641882 0.315630 -5.438543 13 17 16 
3.660606 0.315152 -5.430303 12 16 15 
3.673716 0.314199 -5.413898 12 17 14 
3.697885 0.314199 -5.413898 11 16 14 
-0.666667 0.186047 -3.472868 13 16 16 
-0.583333 0.166667 -3.111111 12 17 16 
-0.565517 0.165517 -3.089655 12 17 15 
-0.551724 0.165517 -3.089655 13 16 16 
-0.537931 0.165517 -3.089655 14 16 14 
-0.520548 0.164384 -3.068493 13 16 13 
-0.506849 0.164384 -3.068493 12 17 14 
-0.493151 0.164384 -3.068493 12 17 15 
-0.479452 0.164384 -3.068493 12 18 15 
-0.031250 0.375000 -7.000000 10 15 11 
0.000000 0.375000 -7.000000 10 16 11 
0.031250 0.375000 -7.000000 10 17 12 
0.062500 0.375000 -7.000000 10 18 13 
0.093750 0.375000 -7.000000 10 17 12 
0.125000 0.375000 -7.000000 10 16 12 
0.156250 0.375000 -7.000000 10 17 12 
0.250000 0.375000 -7.000000 11 15 13 
0.281250 0.375000 -7.000000 11 15 13 
0.312500 0.375000 -7.000000 10 16 12 
0.343750 0.375000 -7.000000 10 18 12 
0.375000 0.375000 -7.000000 10 17 10 
0.406250 0.375000 -7.000000 10 15 9 
0.437500 0.375000 -7.000000 10 15 10 
0.459770 0.367816 -6.865901 10 14 11 
0.490421 0.367816 -6.865901 11 15 12 
0.410585 0.153970 -2.874098 17 21 12 
0.423416 0.153970 -2.874098 16 20 11 
0.436247 0.153970 -2.874098 16 18 12 
0.449438 0.154093 -2.876405 16 19 12 
0.462651 0.154217 -2.878715 16 19 11 
0.476267 0.154465 -2.883347 16 19 11 
1.212121 0.363636 -6.787879 14 18 9 
1.242424 0.363636 -6.787879 14 18 8 
1.270321 0.362949 -6.775047 14 18 7 
1.300567 0.362949 -6.775047 15 18 7 
1.333333 0.363636 -6.787879 12 16 7 
1.363636 0.363636 -6.787879 8 11 6 
1.393939 0.363636 -6.787879 7 11 5 
2.222222 0.355556 -6.637037 14 17 14 
2.415094 0.362264 -6.762264 15 16 15 
2.440678 0.361582 -6.749529 14 16 16 
2.470810 0.361582 -6.749529 13 17 15 
2.500942 0.361582 -6.749529 13 17 14 
2.521576 0.360225 -6.724203 14 16 12 
2.551595 0.360225 -6.724203 13 17 12 
2.571963 0.358878 -6.699065 14 17 12 
2.592179 0.357542 -6.674116 14 17 12 
2.631776 0.358878 -6.699065 13 17 9 
2.661682 0.358878 -6.699065 13 18 9 
2.701689 0.360225 -6.724203 12 18 9 
2.731707 0.360225 -6.724203 14 17 7 
2.772128 0.361582 -6.749529 13 17 7 
2.807547 0.362264 -6.762264 12 17 9 
2.843100 0.362949 -6.775047 13 17 12 
2.873346 0.362949 -6.775047 13 17 14 
2.903592 0.362949 -6.775047 12 18 14 
2.933837 0.362949 -6.775047 11 18 13 
2.969697 0.363636 -6.787879 11 20 11 
3.000000 0.363636 -6.787879 11 19 12 
3.036053 0.364326 -6.800759 11 18 11 
3.072243 0.365019 -6.813688 11 19 12 
3.114504 0.366412 -6.839694 12 18 13 
3.151052 0.367113 -6.852772 13 17 14 
3.187739 0.367816 -6.865901 13 17 13 
3.281250 0.375000 -7.000000 12 17 11 
3.312500 0.375000 -7.000000 12 17 11 
3.343750 0.375000 -7.000000 12 18 13 
3.375000 0.375000 -7.000000 13 17 11 
3.406250 0.375000 -7.000000 14 17 8 
3.531250 0.375000 -7.000000 13 16 10 
3.562500 0.375000 -7.000000 13 17 13 
3.593750 0.375000 -7.000000 12 18 14 
3.625000 0.375000 -7.000000 12 17 13 
3.656250 0.375000 -7.000000 12 16 13 
3.687500 0.375000 -7.000000 12 16 14 
3.718750 0.375000 -7.000000 12 16 15 
3.750000 0.375000 -7.000000 12 16 15 
2.628121 0.252300 -4.709593 14 16 14 
2.645669 0.251969 -4.703412 12 17 14 
2.659686 0.251309 -4.691100 11 17 14 
2.684142 0.251638 -4.697248 11 18 15 
3.439024 0.292683 -5.463415 12 17 16 
3.463415 0.292683 -5.463415 12 17 16 
3.482496 0.292237 -5.455099 11 18 15 
3.506849 0.292237 -5.455099 11 17 15 
3.525836 0.291793 -5.446808 12 17 15 
3.550152 0.291793 -5.446808 12 17 14 
3.574468 0.291793 -5.446808 11 17 14 
3.593323 0.291351 -5.438543 11 17 14 
3.617602 0.291351 -5.438543 11 18 14 
3.641882 0.291351 -5.438543 11 18 14 
3.660606 0.290909 -5.430303 12 17 13 
3.679274 0.290469 -5.422088 13 16 13 
-0.666667 0.170543 -3.472868 12 16 15 
-0.583333 0.152778 -3.111111 11 17 16 
-0.565517 0.151724 -3.089655 11 16 16 
-0.551724 0.151724 -3.089655 12 17 16 
-0.537931 0.151724 -3.089655 13 16 15 
-0.520548 0.150685 -3.068493 12 16 14 
-0.506849 0.150685 -3.068493 11 16 14 
-0.493151 0.150685 -3.068493 11 16 14 
-0.479452 0.150685 -3.068493 11 17 14 
-0.062500 0.343750 -7.000000 11 15 13 
-0.031250 0.343750 -7.000000 10 15 12 
0.000000 0.343750 -7.000000 10 16 12 
0.031250 0.343750 -7.000000 10 16 11 
0.062500 0.343750 -7.000000 10 16 12 
0.093750 0.343750 -7.000000 11 16 13 
0.125000 0.343750 -7.000000 11 15 13 
0.156250 0.343750 -7.000000 10 15 13 
0.187500 0.343750 -7.000000 10 15 13 
0.218750 0.343750 -7.000000 10 14 13 
0.250000 0.343750 -7.000000 11 15 13 
0.281250 0.343750 -7.000000 11 16 13 
0.312500 0.343750 -7.000000 10 17 12 
0.343750 0.343750 -7.000000 10 17 12 
0.375000 0.343750 -7.000000 10 16 9 
0.406250 0.343750 -7.000000 10 15 7 
0.437500 0.343750 -7.000000 11 14 8 
0.459770 0.337165 -6.865901 10 14 11 
0.490421 0.337165 -6.865901 9 15 13 
0.384924 0.141139 -2.874098 41 60 61 
0.397755 0.141139 -2.874098 17 24 16 
0.410585 0.141139 -2.874098 16 20 11 
0.423416 0.141139 -2.874098 15 20 11 
0.436247 0.141139 -2.874098 16 19 14 
0.449078 0.141139 -2.874098 16 18 14 
0.462279 0.141252 -2.876405 17 18 13 
0.475502 0.141365 -2.878715 17 18 11 
1.212121 0.333333 -6.787879 14 19 11 
1.242424 0.333333 -6.787879 14 19 11 
1.270321 0.332703 -6.775047 14 18 10 
1.300567 0.332703 -6.775047 14 18 10 
1.333333 0.333333 -6.787879 12 15 8 
1.363636 0.333333 -6.787879 8 11 6 
1.393939 0.333333 -6.787879 7 11 6 
1.424242 0.333333 -6.787879 9 13 7 
2.180479 0.324125 -6.600368 13 18 12 
2.205882 0.323529 -6.588235 14 17 13 
2.235294 0.323529 -6.588235 13 17 13 
2.285714 0.326531 -6.649351 13 17 14 
2.337079 0.329588 -6.711610 14 17 12 
2.367041 0.329588 -6.711610 15 16 10 
2.401501 0.330206 -6.724203 13 17 12 
2.431520 0.330206 -6.724203 11 17 14 
2.461539 0.330206 -6.724203 12 18 15 
2.491557 0.330206 -6.724203 12 17 14 
2.516854 0.329588 -6.711610 14 16 12 
2.532588 0.327747 -6.674116 14 17 11 
2.562384 0.327747 -6.674116 14 18 10 
2.592179 0.327747 -6.674116 14 17 11 
2.631776 0.328972 -6.699065 14 17 10 
2.661682 0.328972 -6.699065 14 16 11 
2.696629 0.329588 -6.711610 14 17 10 
2.736842 0.330827 -6.736842 14 17 8 
2.772128 0.331450 -6.749529 14 17 7 
2.807547 0.332075 -6.762264 12 18 10 
2.837736 0.332075 -6.762264 12 17 12 
2.867924 0.332075 -6.762264 12 17 14 
2.898113 0.332075 -6.762264 13 17 15 
2.928302 0.332075 -6.762264 13 17 15 
2.964083 0.332703 -6.775047 12 18 12 
2.994329 0.332703 -6.775047 12 18 12 
3.030303 0.333333 -6.787879 12 17 13 
3.060606 0.333333 -6.787879 12 17 14 
3.102662 0.334601 -6.813688 11 17 14 
3.133080 0.334601 -6.813688 11 18 13 
3.169524 0.335238 -6.826667 12 17 13 
3.212237 0.336520 -6.852772 12 17 12 
3.312500 0.343750 -7.000000 12 17 13 
3.562500 0.343750 -7.000000 12 18 13 
3.593750 0.343750 -7.000000 12 17 12 
3.625000 0.343750 -7.000000 12 16 13 
3.656250 0.343750 -7.000000 12 17 14 
3.687500 0.343750 -7.000000 12 17 14 
3.718750 0.343750 -7.000000 13 17 16 
2.586071 0.231275 -4.709593 13 17 12 
2.603675 0.230971 -4.703412 14 15 13 
2.617801 0.230366 -4.691100 14 16 15 
2.638743 0.230366 -4.691100 13 17 15 
2.659686 0.230366 -4.691100 11 17 14 
2.680628 0.230366 -4.691100 11 17 14 
2.701571 0.230366 -4.691100 11 18 15 
2.736842 0.231579 -4.715789 11 18 14 
3.550152 0.267477 -5.446808 11 17 14 
3.574468 0.267477 -5.446808 11 17 14 
3.593323 0.267071 -5.438543 12 16 13 
3.617602 0.267071 -5.438543 12 17 12 
3.641882 0.267071 -5.438543 11 18 12 
-0.666667 0.155039 -3.472868 11 15 14 
-0.583333 0.138889 -3.111111 11 16 15 
-0.565517 0.137931 -3.089655 11 17 16 
-0.551724 0.137931 -3.089655 10 17 15 
-0.537931 0.137931 -3.089655 11 16 14 
-0.520548 0.136986 -3.068493 13 15 13 
-0.506849 0.136986 -3.068493 11 15 13 
-0.493151 0.136986 -3.068493 10 15 13 
-0.479452 0.136986 -3.068493 11 16 13 
-0.093750 0.312500 -7.000000 11 14 13 
-0.062500 0.312500 -7.000000 12 14 13 
-0.031250 0.312500 -7.000000 11 15 14 
0.000000 0.312500 -7.000000 10 15 13 
0.031250 0.312500 -7.000000 9 15 11 
0.062500 0.312500 -7.000000 9 15 12 
0.093750 0.312500 -7.000000 10 15 12 
0.125000 0.312500 -7.000000 10 14 12 
0.156250 0.312500 -7.000000 10 14 13 
0.187500 0.312500 -7.000000 9 15 12 
0.218750 0.312500 -7.000000 9 15 11 
0.250000 0.312500 -7.000000 9 15 12 
0.281250 0.312500 -7.000000 10 16 13 
0.312500 0.312500 -7.000000 8 16 13 
0.343750 0.312500 -7.000000 8 16 13 
0.375000 0.312500 -7.000000 9 16 12 
0.406250 0.312500 -7.000000 10 15 12 
0.437500 0.312500 -7.000000 11 14 12 
0.459770 0.306513 -6.865901 10 13 12 
0.490421 0.306513 -6.865901 10 13 12 
0.346431 0.128308 -2.874098 180 210 210 
0.359262 0.128308 -2.874098 201 249 253 
0.372093 0.128308 -2.874098 151 178 192 
0.384924 0.128308 -2.874098 36 51 54 
0.397755 0.128308 -2.874098 17 24 19 
0.410915 0.128411 -2.876405 17 20 13 
0.423756 0.128411 -2.876405 16 20 11 
0.436247 0.128308 -2.874098 17 20 12 
0.449078 0.128308 -2.874098 17 19 14 
0.462279 0.128411 -2.876405 18 19 13 
0.475120 0.128411 -2.876405 18 19 10 
1.212121 0.303030 -6.787879 13 19 12 
1.242424 0.303030 -6.787879 13 19 13 
1.270321 0.302457 -6.775047 13 19 14 
1.303030 0.303030 -6.787879 13 18 13 
1.333333 0.303030 -6.787879 12 15 8 
1.363636 0.303030 -6.787879 9 11 5 
1.393939 0.303030 -6.787879 8 12 6 
1.424242 0.303030 -6.787879 10 13 9 
1.454545 0.303030 -6.787879 13 16 12 
2.176471 0.294118 -6.588235 14 16 10 
2.201835 0.293578 -6.576147 14 17 10 
2.235294 0.294118 -6.588235 13 17 12 
2.264706 0.294118 -6.588235 12 16 11 
2.315399 0.296846 -6.649351 13 15 7 
2.353817 0.297952 -6.674116 13 15 6 
2.397004 0.299625 -6.711610 11 16 10 
2.426966 0.299625 -6.711610 12 17 14 
2.461539 0.300188 -6.724203 12 18 16 
2.491557 0.300188 -6.724203 13 18 15 
2.521576 0.300188 -6.724203 14 17 14 
2.551595 0.300188 -6.724203 14 18 11 
2.562384 0.297952 -6.674116 14 19 9 
2.616541 0.300752 -6.736842 14 19 10 
2.651601 0.301318 -6.749529 14 18 11 
2.666667 0.299625 -6.711610 14 16 12 
2.701689 0.300188 -6.724203 13 16 12 
2.741996 0.301318 -6.749529 14 17 12 
2.777359 0.301887 -6.762264 15 17 11 
2.807547 0.301887 -6.762264 13 17 11 
2.837736 0.301887 -6.762264 12 17 12 
2.867924 0.301887 -6.762264 11 17 14 
2.898113 0.301887 -6.762264 12 16 15 
2.928302 0.301887 -6.762264 13 16 14 
2.964083 0.302457 -6.775047 13 17 12 
2.994329 0.302457 -6.775047 13 17 12 
3.030303 0.303030 -6.787879 13 16 13 
3.060606 0.303030 -6.787879 13 16 14 
3.096774 0.303605 -6.800759 12 17 13 
3.127135 0.303605 -6.800759 11 18 11 
3.163498 0.304182 -6.813688 11 17 12 
3.200000 0.304762 -6.826667 12 17 14 
3.242830 0.305927 -6.852772 12 17 14 
3.656250 0.312500 -7.000000 12 16 14 
3.687500 0.312500 -7.000000 11 17 15 
2.578600 0.211361 -4.734478 13 17 10 
2.586071 0.210250 -4.709593 14 17 9 
2.603675 0.209974 -4.703412 14 16 12 
2.624672 0.209974 -4.703412 14 16 14 
2.645669 0.209974 -4.703412 14 16 13 
2.659686 0.209424 -4.691100 13 16 12 
2.680628 0.209424 -4.691100 12 16 12 
2.708661 0.209974 -4.703412 10 17 12 
2.736842 0.210526 -4.715789 10 18 12 
2.757895 0.210526 -4.715789 11 17 13 
2.786280 0.211082 -4.728232 13 16 14 
-0.666667 0.139535 -3.472868 11 17 15 
-0.583333 0.125000 -3.111111 10 16 15 
-0.565517 0.124138 -3.089655 10 16 15 
-0.551724 0.124138 -3.089655 11 16 15 
-0.537931 0.124138 -3.089655 12 16 14 
-0.520548 0.123288 -3.068493 13 15 13 
-0.506849 0.123288 -3.068493 12 15 12 
-0.493151 0.123288 -3.068493 10 15 13 
-0.479452 0.123288 -3.068493 10 15 14 
-0.125000 0.281250 -7.000000 9 15 12 
-0.093750 0.281250 -7.000000 10 15 12 
-0.062500 0.281250 -7.000000 11 15 11 
-0.031250 0.281250 -7.000000 11 14 12 
0.000000 0.281250 -7.000000 10 14 13 
0.031250 0.281250 -7.000000 9 14 12 
0.062500 0.281250 -7.000000 9 15 12 
0.093750 0.281250 -7.000000 9 15 12 
0.125000 0.281250 -7.000000 9 15 12 
0.156250 0.281250 -7.000000 9 15 13 
0.187500 0.281250 -7.000000 9 15 12 
0.218750 0.281250 -7.000000 9 14 11 
0.250000 0.281250 -7.000000 9 14 11 
0.281250 0.281250 -7.000000 9 14 12 
0.312500 0.281250 -7.000000 9 14 12 
0.343750 0.281250 -7.000000 8 14 13 
0.375000 0.281250 -7.000000 9 15 13 
0.406250 0.281250 -7.000000 11 15 13 
0.437500 0.281250 -7.000000 10 14 13 
0.459770 0.275862 -6.865901 10 14 13 
0.490421 0.275862 -6.865901 9 14 12 
0.282051 0.115385 -2.871795 9 14 7 
0.294872 0.115385 -2.871795 9 15 8 
0.307692 0.115385 -2.871795 11 16 10 
0.320770 0.115477 -2.874098 12 17 10 
0.333601 0.115477 -2.874098 71 83 78 
0.346431 0.115477 -2.874098 192 222 222 
0.359262 0.115477 -2.874098 204 248 251 
0.372093 0.115477 -2.874098 133 158 168 
0.385233 0.115570 -2.876405 27 42 45 
0.398074 0.115570 -2.876405 17 23 20 
0.410915 0.115570 -2.876405 17 19 14 
0.423756 0.115570 -2.876405 17 19 10 
0.436247 0.115477 -2.874098 17 19 9 
0.449078 0.115477 -2.874098 18 18 11 
0.461909 0.115477 -2.874098 18 18 11 
0.475120 0.115570 -2.876405 17 18 10 
1.212121 0.272727 -6.787879 14 19 11 
1.242424 0.272727 -6.787879 14 19 13 
1.272727 0.272727 -6.787879 14 19 12 
1.303030 0.272727 -6.787879 14 19 10 
1.333333 0.272727 -6.787879 11 15 8 
1.363636 0.272727 -6.787879 9 11 5 
1.393939 0.272727 -6.787879 9 12 5 
1.424242 0.272727 -6.787879 12 13 8 
1.454545 0.272727 -6.787879 14 16 12 
2.201835 0.264220 -6.576147 13 17 12 
2.235294 0.264706 -6.588235 12 17 13 
2.264706 0.264706 -6.588235 11 16 9 
2.306839 0.266174 -6.624769 8 12 4 
2.353817 0.268156 -6.674116 9 11 6 
2.388060 0.268657 -6.686567 12 15 11 
2.431520 0.270169 -6.724203 14 19 14 
2.461539 0.270169 -6.724203 15 20 16 
2.491557 0.270169 -6.724203 17 22 16 
2.531073 0.271186 -6.749529 17 21 13 
2.561205 0.271186 -6.749529 18 22 11 
2.591337 0.271186 -6.749529 17 21 9 
2.621469 0.271186 -6.749529 18 20 10 
2.661626 0.272212 -6.775047 17 18 12 
2.691871 0.272212 -6.775047 15 17 12 
2.722117 0.272212 -6.775047 13 18 12 
2.752363 0.272212 -6.775047 13 18 11 
2.787879 0.272727 -6.787879 13 17 11 
2.818182 0.272727 -6.787879 13 17 11 
2.848485 0.272727 -6.787879 12 17 13 
2.873346 0.272212 -6.775047 12 16 14 
